ply
format ascii 1.0
element vertex 840
property float x
property float y
property float z
property float nx
property float ny
property float nz
end_header
0.0243554 0 0.0387841 0.000977516 -0.999999 0.000977516 
0.0177215 0 0.0327679 0.000977516 -0.999999 0.000977516 
0.0374404 0 0.0366692 0.000977516 -0.999999 0.000977516 
0.00263917 0 0.0388284 0.000977516 -0.999999 0.000977516 
0.0222658 0 0.0350757 0.000977516 -0.999999 0.000977516 
0.00879539 0 0.0388356 0.000977516 -0.999999 0.000977516 
0.0258256 0 0.0261268 0.000977516 -0.999999 0.000977516 
0.0384881 0 0.0153535 0.000977516 -0.999999 0.000977516 
0.0157148 0 0.0305521 0.000977516 -0.999999 0.000977516 
0.022675 0 0.0180133 0.000977516 -0.999999 0.000977516 
0.0399711 0 0.0181433 0.000977516 -0.999999 0.000977516 
0.0255865 0 0.0387742 0.000977516 -0.999999 0.000977516 
0.0240906 0 0.024753 0.000977516 -0.999999 0.000977516 
0.0351576 0 0.00812889 0.000977516 -0.999999 0.000977516 
0.0361274 0 0.00448173 0.000977516 -0.999999 0.000977516 
0.0330199 0 0.0105393 0.000977516 -0.999999 0.000977516 
0.0149682 0 0.0377171 0.000977516 -0.999999 0.000977516 
0.0396557 0 0.030376 0.000977516 -0.999999 0.000977516 
0.0138073 0 0.0262312 0.000977516 -0.999999 0.000977516 
0.00886997 0 0.0311984 0.000977516 -0.999999 0.000977516 
0.012027 0 0.0295137 0.000977516 -0.999999 0.000977516 
0.034375 0 0.0389246 0.000977516 -0.999999 0.000977516 
0.0365305 0 0.0162237 0.000977516 -0.999999 0.000977516 
0.0370534 0 0.0169894 0.000977516 -0.999999 0.000977516 
0.0284119 0 0.0373098 0.000977516 -0.999999 0.000977516 
0.0277341 0 0.0268622 0.000977516 -0.999999 0.000977516 
0.0172236 0 0.0314491 0.000977516 -0.999999 0.000977516 
0.0353991 0 0.0374782 0.000977516 -0.999999 0.000977516 
0.0192339 0 0.028851 0.000977516 -0.999999 0.000977516 
0.0390375 0 0.0314121 0.000977516 -0.999999 0.000977516 
0.027509 0 0.0342814 0.000977516 -0.999999 0.000977516 
0.0320008 0 0.014362 0.000977516 -0.999999 0.000977516 
0.0291665 0 0.0196158 0.000977516 -0.999999 0.000977516 
0.036359 0 0.00638214 0.000977516 -0.999999 0.000977516 
0.0269977 0 0.0173941 0.000977516 -0.999999 0.000977516 
0.0319954 0 0.0124347 0.000977516 -0.999999 0.000977516 
0.0150373 0 0.0297502 0.000977516 -0.999999 0.000977516 
0.0174105 0 0.0331545 0.000977516 -0.999999 0.000977516 
0.0179624 0 0.0276319 0.000977516 -0.999999 0.000977516 
0.0386835 0 0.0338585 0.000977516 -0.999999 0.000977516 
0.00286246 0 0.0388212 0.000977516 -0.999999 0.000977516 
0.0292154 0 0.0169619 0.000977516 -0.999999 0.000977516 
0.026479 0 0.0260386 0.000977516 -0.999999 0.000977516 
0.0308099 0 0.00933895 0.000977516 -0.999999 0.000977516 
0.038277 0 0.0040323 0.000977516 -0.999999 0.000977516 
0.0250643 0 0.0319178 0.000977516 -0.999999 0.000977516 
0.031817 0 0.0325667 0.000977516 -0.999999 0.000977516 
0.0350716 0 0.0224945 0.000977516 -0.999999 0.000977516 
0.0307915 0 0.0211927 0.000977516 -0.999999 0.000977516 
0.00537662 0 0.0395486 0.000977516 -0.999999 0.000977516 
0.0265374 0 0.0221854 0.000977516 -0.999999 0.000977516 
0.0344326 0 0.0323298 0.000977516 -0.999999 0.000977516 
0.0309885 0 0.0217268 0.000977516 -0.999999 0.000977516 
0.0228869 0 0.0261343 0.000977516 -0.999999 0.000977516 
0.0331886 0 0.0113148 0.000977516 -0.999999 0.000977516 
0.0325269 0 0.0326607 0.000977516 -0.999999 0.000977516 
0.0194819 0 0.0336385 0.000977516 -0.999999 0.000977516 
0.0334001 0 0.0259929 0.000977516 -0.999999 0.000977516 
0.00603739 0 0.0393949 0.000977516 -0.999999 0.000977516 
0.0184613 0 0.0317802 0.000977516 -0.999999 0.000977516 
0.0284278 0 0.0288657 0.000977516 -0.999999 0.000977516 
0.0396479 0 0.0307048 0.000977516 -0.999999 0.000977516 
0.0374123 0 0.0117587 0.000977516 -0.999999 0.000977516 
0.00619446 0 0.0353773 0.000977516 -0.999999 0.000977516 
0.0140108 0 0.0358414 0.000977516 -0.999999 0.000977516 
0.0306783 0 0.0178796 0.000977516 -0.999999 0.000977516 
0.00796685 0 0.0331855 0.000977516 -0.999999 0.000977516 
0.0106419 0 0.0370136 0.000977516 -0.999999 0.000977516 
0.0245226 0 0.0399738 0.000977516 -0.999999 0.000977516 
0.0220626 0 0.0278036 0.000977516 -0.999999 0.000977516 
0.0233614 0 0.027217 0.000977516 -0.999999 0.000977516 
0.0135681 0 0.0364114 0.000977516 -0.999999 0.000977516 
0.0121874 0 0.0321371 0.000977516 -0.999999 0.000977516 
0.0211575 0 0.0287804 0.000977516 -0.999999 0.000977516 
0.0133819 0 0.0273598 0.000977516 -0.999999 0.000977516 
0.0293693 0 0.029378 0.000977516 -0.999999 0.000977516 
0.0366507 0 0.0217671 0.000977516 -0.999999 0.000977516 
0.0112626 0 0.0357548 0.000977516 -0.999999 0.000977516 
0.0100938 0 0.0346788 0.000977516 -0.999999 0.000977516 
0.0117813 0 0.0329376 0.000977516 -0.999999 0.000977516 
0.0199293 0 0.0204283 0.000977516 -0.999999 0.000977516 
0.013667 0 0.0282258 0.000977516 -0.999999 0.000977516 
0.0251012 0 0.0248478 0.000977516 -0.999999 0.000977516 
0.0250241 0 0.0282933 0.000977516 -0.999999 0.000977516 
0.0373463 0 0.0316964 0.000977516 -0.999999 0.000977516 
0.0252224 0 0.0167669 0.000977516 -0.999999 0.000977516 
0.0393038 0 0.0121479 0.000977516 -0.999999 0.000977516 
0.0196201 0 0.0232528 0.000977516 -0.999999 0.000977516 
0.0345472 0 0.0348677 0.000977516 -0.999999 0.000977516 
0.0377993 0 0.0307364 0.000977516 -0.999999 0.000977516 
0.0367614 0 0.0313947 0.000977516 -0.999999 0.000977516 
0.0353658 0 0.038087 0.000977516 -0.999999 0.000977516 
0.00508052 0 0.0386762 0.000977516 -0.999999 0.000977516 
0.0189452 0 0.0255046 0.000977516 -0.999999 0.000977516 
0.00502404 0 0.0359494 0.000977516 -0.999999 0.000977516 
0.0266072 0 0.0326298 0.000977516 -0.999999 0.000977516 
0.0160216 0 0.033868 0.000977516 -0.999999 0.000977516 
0.0205137 0 0.029793 0.000977516 -0.999999 0.000977516 
0.0136171 0 0.0381048 0.000977516 -0.999999 0.000977516 
0.0216938 0 0.0300813 0.000977516 -0.999999 0.000977516 
0.0166128 0 0.0325413 0.000977516 -0.999999 0.000977516 
0.0391925 0 0.021974 0.000977516 -0.999999 0.000977516 
0.0340972 0 0.0251469 0.000977516 -0.999999 0.000977516 
0.0273462 0 0.0139582 0.000977516 -0.999999 0.000977516 
0.0125616 0 0.0354157 0.000977516 -0.999999 0.000977516 
0.023594 0 0.0303482 0.000977516 -0.999999 0.000977516 
0.0224488 0 0.0205511 0.000977516 -0.999999 0.000977516 
0.0235715 0 0.0349943 0.000977516 -0.999999 0.000977516 
0.0178676 0 0.0330565 0.000977516 -0.999999 0.000977516 
0.0191839 0 0.0367197 0.000977516 -0.999999 0.000977516 
0.0272713 0 0.0228934 0.000977516 -0.999999 0.000977516 
0.0304857 0 0.0103483 0.000977516 -0.999999 0.000977516 
0.0274365 0 0.0351254 0.000977516 -0.999999 0.000977516 
0.0243343 0 0.0223836 0.000977516 -0.999999 0.000977516 
0.0327136 0 0.0296631 0.000977516 -0.999999 0.000977516 
0.030546 0 0.0121865 0.000977516 -0.999999 0.000977516 
0.0290065 0 0.0278276 0.000977516 -0.999999 0.000977516 
0.00573519 0 0.0357534 0.000977516 -0.999999 0.000977516 
0.0372299 0 0.0145884 0.000977516 -0.999999 0.000977516 
0.0343755 0 0.0244516 0.000977516 -0.999999 0.000977516 
0.00903614 0 0.0349802 0.000977516 -0.999999 0.000977516 
0.0113657 0 0.0378538 0.000977516 -0.999999 0.000977516 
0.0378738 0 0.0296087 0.000977516 -0.999999 0.000977516 
0.0357088 0 0.0308944 0.000977516 -0.999999 0.000977516 
0.0341762 0 0.0226806 0.000977516 -0.999999 0.000977516 
0.0385468 0 0.01167 0.000977516 -0.999999 0.000977516 
0.0132117 0 0.0397924 0.000977516 -0.999999 0.000977516 
0.0353983 0 0.0261328 0.000977516 -0.999999 0.000977516 
0.0248181 0 0.0188276 0.000977516 -0.999999 0.000977516 
0.0242236 0 0.030172 0.000977516 -0.999999 0.000977516 
0.0363023 0 0.00498063 0.000977516 -0.999999 0.000977516 
0.0357508 0 0.0360713 0.000977516 -0.999999 0.000977516 
0.0380639 0 0.00721505 0.000977516 -0.999999 0.000977516 
0.0218924 0 0.02256 0.000977516 -0.999999 0.000977516 
0.018231 0 0.0375202 0.000977516 -0.999999 0.000977516 
0.0204099 0 0.0294044 0.000977516 -0.999999 0.000977516 
0.0362454 0 0.0105164 0.000977516 -0.999999 0.000977516 
0.0198773 0 0.0367775 0.000977516 -0.999999 0.000977516 
0.0292211 0 0.0167326 0.000977516 -0.999999 0.000977516 
0.0340757 0 0.00916125 0.000977516 -0.999999 0.000977516 
0.0277724 0 0.0381021 0.000977516 -0.999999 0.000977516 
0.0211889 0 0.0239413 0.000977516 -0.999999 0.000977516 
0.0331936 0 0.0273153 0.000977516 -0.999999 0.000977516 
0.0247208 0 0.025923 0.000977516 -0.999999 0.000977516 
0.0247725 0 0.0255465 0.000977516 -0.999999 0.000977516 
0.0293715 0 0.0141102 0.000977516 -0.999999 0.000977516 
0.0374307 0 0.012014 0.000977516 -0.999999 0.000977516 
0.0301433 0 0.0186032 0.000977516 -0.999999 0.000977516 
0.0193033 0 0.030388 0.000977516 -0.999999 0.000977516 
0.0336384 0 0.0242965 0.000977516 -0.999999 0.000977516 
0.0251443 0 0.0201178 0.000977516 -0.999999 0.000977516 
0.0257652 0 0.0232631 0.000977516 -0.999999 0.000977516 
0.0237851 0 0.0179928 0.000977516 -0.999999 0.000977516 
0.0103979 0 0.0323982 0.000977516 -0.999999 0.000977516 
0.0309938 0 0.0147262 0.000977516 -0.999999 0.000977516 
0.00979592 0 0.0362423 0.000977516 -0.999999 0.000977516 
0.0347385 0 0.0124227 0.000977516 -0.999999 0.000977516 
0.0360293 0 0.0262316 0.000977516 -0.999999 0.000977516 
0.0309437 0 0.0275072 0.000977516 -0.999999 0.000977516 
0.0263388 0 0.0390941 0.000977516 -0.999999 0.000977516 
0.0138497 0 0.0283914 0.000977516 -0.999999 0.000977516 
0.023407 0 0.0205253 0.000977516 -0.999999 0.000977516 
0.0199766 0 0.0390624 0.000977516 -0.999999 0.000977516 
0.0367193 0 0.0239581 0.000977516 -0.999999 0.000977516 
0.0354939 0 0.0349933 0.000977516 -0.999999 0.000977516 
0.0209077 0 0.0282256 0.000977516 -0.999999 0.000977516 
0.0335413 0 0.00753371 0.000977516 -0.999999 0.000977516 
0.0218306 0 0.0303954 0.000977516 -0.999999 0.000977516 
0.0258887 0 0.0185034 0.000977516 -0.999999 0.000977516 
0.0247752 0 0.016731 0.000977516 -0.999999 0.000977516 
0.0193896 0 0.0377478 0.000977516 -0.999999 0.000977516 
0.0164306 0 0.0290531 0.000977516 -0.999999 0.000977516 
0.0322654 0 0.0296141 0.000977516 -0.999999 0.000977516 
0.0306072 0 0.0113803 0.000977516 -0.999999 0.000977516 
0.0334955 0 0.029561 0.000977516 -0.999999 0.000977516 
0.0120716 0 0.0299518 0.000977516 -0.999999 0.000977516 
0.0132807 0 0.0338905 0.000977516 -0.999999 0.000977516 
0.02543 0 0.0396222 0.000977516 -0.999999 0.000977516 
0.020235 0 0.0327967 0.000977516 -0.999999 0.000977516 
0.0307195 0 0.0350415 0.000977516 -0.999999 0.000977516 
0.0294072 0 0.0109469 0.000977516 -0.999999 0.000977516 
0.0362353 0 0.0187893 0.000977516 -0.999999 0.000977516 
0.0233457 0 0.0238224 0.000977516 -0.999999 0.000977516 
0.0263509 0 0.0256872 0.000977516 -0.999999 0.000977516 
0.0304152 0 0.0341483 0.000977516 -0.999999 0.000977516 
0.0364046 0 0.0133648 0.000977516 -0.999999 0.000977516 
0.0326002 0 0.026115 0.000977516 -0.999999 0.000977516 
0.0341538 0 0.0352166 0.000977516 -0.999999 0.000977516 
0.0251433 0 0.0206669 0.000977516 -0.999999 0.000977516 
0.0374004 0 0.0370984 0.000977516 -0.999999 0.000977516 
0.0171085 0 0.0245755 0.000977516 -0.999999 0.000977516 
0.0304731 0 0.0252906 0.000977516 -0.999999 0.000977516 
0.00841801 0 0.0383843 0.000977516 -0.999999 0.000977516 
0.0242276 0 0.0280204 0.000977516 -0.999999 0.000977516 
0.0178827 0 0.0275065 0.000977516 -0.999999 0.000977516 
0.0273651 0 0.0210379 0.000977516 -0.999999 0.000977516 
0.0315173 0 0.0317873 0.000977516 -0.999999 0.000977516 
0.0237015 0 0.0223721 0.000977516 -0.999999 0.000977516 
0.0348759 0 0.0208832 0.000977516 -0.999999 0.000977516 
0.0399189 0 0.00413343 0.000977516 -0.999999 0.000977516 
0.00977624 0 0.0365168 0.000977516 -0.999999 0.000977516 
0.0323209 0 0.0121322 0.000977516 -0.999999 0.000977516 
0.0351604 0 0.0169419 0.000977516 -0.999999 0.000977516 
0.0353757 0 0.0312121 0.000977516 -0.999999 0.000977516 
0.0121487 0 0.0301515 0.000977516 -0.999999 0.000977516 
0.038613 0 0.0257976 0.000977516 -0.999999 0.000977516 
0.0280236 0 0.0319198 0.000977516 -0.999999 0.000977516 
0.0324371 0 0.0381137 0.000977516 -0.999999 0.000977516 
0.0386599 0 0.0106928 0.000977516 -0.999999 0.000977516 
0.0355189 0 0.0240342 0.000977516 -0.999999 0.000977516 
0.0216288 0 0.037422 0.000977516 -0.999999 0.000977516 
0.0239949 0 0.0183043 0.000977516 -0.999999 0.000977516 
0.0296037 0 0.03443 0.000977516 -0.999999 0.000977516 
0.0380353 0 0.0135728 0.000977516 -0.999999 0.000977516 
0.028089 0 0.0146376 0.000977516 -0.999999 0.000977516 
0.0374373 0 0.00627042 0.000977516 -0.999999 0.000977516 
0.0174839 0 0.0272479 0.000977516 -0.999999 0.000977516 
0.0381617 0 0.0194302 0.000977516 -0.999999 0.000977516 
0.0273162 0 0.0359715 0.000977516 -0.999999 0.000977516 
0.0343035 0 0.010741 0.000977516 -0.999999 0.000977516 
0.0220815 0 0.0241887 0.000977516 -0.999999 0.000977516 
0.039998 0 0.0298258 0.000977516 -0.999999 0.000977516 
0.0180958 0 0.0247324 0.000977516 -0.999999 0.000977516 
0.0261806 0 0.015314 0.000977516 -0.999999 0.000977516 
0.0300603 0 0.0280806 0.000977516 -0.999999 0.000977516 
0.0263598 0 0.0329948 0.000977516 -0.999999 0.000977516 
0.0330121 0 0.0377417 0.000977516 -0.999999 0.000977516 
0.0155065 0 0.0360317 0.000977516 -0.999999 0.000977516 
0.0175963 0 0.0322699 0.000977516 -0.999999 0.000977516 
0.0381855 0 0.0329019 0.000977516 -0.999999 0.000977516 
0.0184799 0 0.0330766 0.000977516 -0.999999 0.000977516 
0.0164322 0 0.0302692 0.000977516 -0.999999 0.000977516 
0.0242449 0 0.0214166 0.000977516 -0.999999 0.000977516 
0.0393166 0 0.0174269 0.000977516 -0.999999 0.000977516 
0.0338893 0 0.0355638 0.000977516 -0.999999 0.000977516 
0.0331182 0 0.0139471 0.000977516 -0.999999 0.000977516 
0.0302657 0 0.014574 0.000977516 -0.999999 0.000977516 
0.00354747 0 0.0368566 0.000977516 -0.999999 0.000977516 
0.0374182 0 0.0121325 0.000977516 -0.999999 0.000977516 
0.0371228 0 0.0051235 0.000977516 -0.999999 0.000977516 
0.0309689 0 0.0189268 0.000977516 -0.999999 0.000977516 
0.00549884 0 0.0398782 0.000977516 -0.999999 0.000977516 
0.00493561 0 0.0373804 0.000977516 -0.999999 0.000977516 
0.0290844 0 0.0283869 0.000977516 -0.999999 0.000977516 
0.0335757 0 0.03494 0.000977516 -0.999999 0.000977516 
0.022249 0 0.0326797 0.000977516 -0.999999 0.000977516 
0.0398728 0 0.00788846 0.000977516 -0.999999 0.000977516 
0.0374742 0 0.00367295 0.000977516 -0.999999 0.000977516 
0.0272495 0 0.0233109 0.000977516 -0.999999 0.000977516 
0.0222837 0 0.0190647 0.000977516 -0.999999 0.000977516 
0.0332195 0 0.0311018 0.000977516 -0.999999 0.000977516 
0.0140285 0 0.0391786 0.000977516 -0.999999 0.000977516 
0.0308702 0 0.0122836 0.000977516 -0.999999 0.000977516 
0.0381312 0 0.0191712 0.000977516 -0.999999 0.000977516 
0.0360845 0 0.0183794 0.000977516 -0.999999 0.000977516 
0.00909065 0 0.0342971 0.000977516 -0.999999 0.000977516 
0.0151855 0 0.0388092 0.000977516 -0.999999 0.000977516 
0.0235283 0 0.0379263 0.000977516 -0.999999 0.000977516 
0.0389391 0 0.0181335 0.000977516 -0.999999 0.000977516 
0.019498 0 0.0344537 0.000977516 -0.999999 0.000977516 
0.0364854 0 0.0251458 0.000977516 -0.999999 0.000977516 
0.0105269 0 0.0301786 0.000977516 -0.999999 0.000977516 
0.00933626 0 0.0372801 0.000977516 -0.999999 0.000977516 
0.0329654 0 0.0102388 0.000977516 -0.999999 0.000977516 
0.0350883 0 0.0251061 0.000977516 -0.999999 0.000977516 
0.0224006 0 0.0305623 0.000977516 -0.999999 0.000977516 
0.0327215 0 0.0270378 0.000977516 -0.999999 0.000977516 
0.0217024 0 0.0239024 0.000977516 -0.999999 0.000977516 
0.0211552 0 0.0327518 0.000977516 -0.999999 0.000977516 
0.0377663 0 0.0397765 0.000977516 -0.999999 0.000977516 
0.023862 0 0.0276175 0.000977516 -0.999999 0.000977516 
0.017812 0 0.032026 0.000977516 -0.999999 0.000977516 
0.0208027 0 0.0251448 0.000977516 -0.999999 0.000977516 
0.0275588 0 0.027573 0.000977516 -0.999999 0.000977516 
0.0129286 0 0.0317596 0.000977516 -0.999999 0.000977516 
0.0324637 0 0.0179586 0.000977516 -0.999999 0.000977516 
0.0247213 0 0.0331804 0.000977516 -0.999999 0.000977516 
0.0337395 0 0.0227902 0.000977516 -0.999999 0.000977516 
0.033979 0 0.0300185 0.000977516 -0.999999 0.000977516 
0.0257822 0 0.0181664 0.000977516 -0.999999 0.000977516 
0.00879546 0 0.0355159 0.000977516 -0.999999 0.000977516 
0.0393954 0 0.0107958 0.000977516 -0.999999 0.000977516 
0.0379556 0 0.0068129 0.000977516 -0.999999 0.000977516 
0.0389266 0 0.0267335 0.000977516 -0.999999 0.000977516 
0.0197562 0 0.0324673 0.000977516 -0.999999 0.000977516 
0.0331886 0 0.033593 0.000977516 -0.999999 0.000977516 
0.015066 0 0.0296018 0.000977516 -0.999999 0.000977516 
0.028494 0 0.0260348 0.000977516 -0.999999 0.000977516 
0.0305943 0 0.0103393 0.000977516 -0.999999 0.000977516 
0.0222377 0 0.0199189 0.000977516 -0.999999 0.000977516 
0.0229945 0 0.0286423 0.000977516 -0.999999 0.000977516 
0.0182925 0 0.0267124 0.000977516 -0.999999 0.000977516 
0.0248351 0 0.0320727 0.000977516 -0.999999 0.000977516 
0.0363661 0 0.0381954 0.000977516 -0.999999 0.000977516 
0.0291792 0 0.0187787 0.000977516 -0.999999 0.000977516 
0.0389807 0 0.0186475 0.000977516 -0.999999 0.000977516 
0.0271295 0 0.0352004 0.000977516 -0.999999 0.000977516 
0.0188359 0 0.0305198 0.000977516 -0.999999 0.000977516 
0.0186162 0 0.0292303 0.000977516 -0.999999 0.000977516 
0.0388594 0 0.0399114 0.000977516 -0.999999 0.000977516 
0.0385403 0 0.00453141 0.000977516 -0.999999 0.000977516 
0.0132844 0.0317671 0 0.000977516 0.000977516 -0.999999 
0.00678892 0.0382947 0 0.000977516 0.000977516 -0.999999 
0.00712037 0.0328872 0 0.000977516 0.000977516 -0.999999 
0.0261064 0.0153035 0 0.000977516 0.000977516 -0.999999 
0.0279108 0.0228535 0 0.000977516 0.000977516 -0.999999 
0.0286807 0.0361751 0 0.000977516 0.000977516 -0.999999 
0.0184096 0.0314369 0 0.000977516 0.000977516 -0.999999 
0.023479 0.0186026 0 0.000977516 0.000977516 -0.999999 
0.0395149 0.0396767 0 0.000977516 0.000977516 -0.999999 
0.0371554 0.00570526 0 0.000977516 0.000977516 -0.999999 
0.0180011 0.0362603 0 0.000977516 0.000977516 -0.999999 
0.0379175 0.0354943 0 0.000977516 0.000977516 -0.999999 
0.026682 0.0319334 0 0.000977516 0.000977516 -0.999999 
0.0349861 0.0395141 0 0.000977516 0.000977516 -0.999999 
0.0316628 0.0384779 0 0.000977516 0.000977516 -0.999999 
0.0276347 0.0295336 0 0.000977516 0.000977516 -0.999999 
0.0313229 0.0247294 0 0.000977516 0.000977516 -0.999999 
0.0345805 0.0177658 0 0.000977516 0.000977516 -0.999999 
0.019383 0.028742 0 0.000977516 0.000977516 -0.999999 
0.0227357 0.029812 0 0.000977516 0.000977516 -0.999999 
0.00543577 0.0384608 0 0.000977516 0.000977516 -0.999999 
0.0328861 0.0214789 0 0.000977516 0.000977516 -0.999999 
0.0357367 0.0123552 0 0.000977516 0.000977516 -0.999999 
0.0364331 0.0310087 0 0.000977516 0.000977516 -0.999999 
0.00924199 0.0367242 0 0.000977516 0.000977516 -0.999999 
0.0223662 0.0388948 0 0.000977516 0.000977516 -0.999999 
0.0305789 0.0332536 0 0.000977516 0.000977516 -0.999999 
0.0212797 0.0198788 0 0.000977516 0.000977516 -0.999999 
0.0299582 0.0205387 0 0.000977516 0.000977516 -0.999999 
0.0287004 0.0192453 0 0.000977516 0.000977516 -0.999999 
0.0301748 0.0399512 0 0.000977516 0.000977516 -0.999999 
0.017156 0.0385247 0 0.000977516 0.000977516 -0.999999 
0.0268323 0.0324155 0 0.000977516 0.000977516 -0.999999 
0.0212826 0.0307495 0 0.000977516 0.000977516 -0.999999 
0.0175397 0.0282824 0 0.000977516 0.000977516 -0.999999 
0.0333687 0.0285455 0 0.000977516 0.000977516 -0.999999 
0.0378819 0.0228702 0 0.000977516 0.000977516 -0.999999 
0.0134326 0.0289699 0 0.000977516 0.000977516 -0.999999 
0.0249218 0.0348565 0 0.000977516 0.000977516 -0.999999 
0.037893 0.0397714 0 0.000977516 0.000977516 -0.999999 
0.0211907 0.0276922 0 0.000977516 0.000977516 -0.999999 
0.0327184 0.0307506 0 0.000977516 0.000977516 -0.999999 
0.0363424 0.0165205 0 0.000977516 0.000977516 -0.999999 
0.0396815 0.0228079 0 0.000977516 0.000977516 -0.999999 
0.0253233 0.0288113 0 0.000977516 0.000977516 -0.999999 
0.0150712 0.0366978 0 0.000977516 0.000977516 -0.999999 
0.0223641 0.0373715 0 0.000977516 0.000977516 -0.999999 
0.0294432 0.0356218 0 0.000977516 0.000977516 -0.999999 
0.0316717 0.0380189 0 0.000977516 0.000977516 -0.999999 
0.024212 0.0223078 0 0.000977516 0.000977516 -0.999999 
0.0317865 0.0350414 0 0.000977516 0.000977516 -0.999999 
0.0157731 0.0373495 0 0.000977516 0.000977516 -0.999999 
0.0297351 0.037003 0 0.000977516 0.000977516 -0.999999 
0.0229233 0.0265119 0 0.000977516 0.000977516 -0.999999 
0.0145799 0.0319867 0 0.000977516 0.000977516 -0.999999 
0.00389578 0.0382102 0 0.000977516 0.000977516 -0.999999 
0.0340764 0.0289175 0 0.000977516 0.000977516 -0.999999 
0.0354977 0.00718151 0 0.000977516 0.000977516 -0.999999 
0.039198 0.0062492 0 0.000977516 0.000977516 -0.999999 
0.0294049 0.0240071 0 0.000977516 0.000977516 -0.999999 
0.0359973 0.0184688 0 0.000977516 0.000977516 -0.999999 
0.0384768 0.0166702 0 0.000977516 0.000977516 -0.999999 
0.0269591 0.0207664 0 0.000977516 0.000977516 -0.999999 
0.012917 0.0384226 0 0.000977516 0.000977516 -0.999999 
0.0351438 0.0332351 0 0.000977516 0.000977516 -0.999999 
0.0381994 0.00402164 0 0.000977516 0.000977516 -0.999999 
0.0151438 0.0249502 0 0.000977516 0.000977516 -0.999999 
0.0176246 0.0341332 0 0.000977516 0.000977516 -0.999999 
0.014002 0.0325084 0 0.000977516 0.000977516 -0.999999 
0.0362729 0.0107621 0 0.000977516 0.000977516 -0.999999 
0.0294273 0.0374289 0 0.000977516 0.000977516 -0.999999 
0.0243909 0.017533 0 0.000977516 0.000977516 -0.999999 
0.0348229 0.0273843 0 0.000977516 0.000977516 -0.999999 
0.0195816 0.0212119 0 0.000977516 0.000977516 -0.999999 
0.0183667 0.0330508 0 0.000977516 0.000977516 -0.999999 
0.0355181 0.011091 0 0.000977516 0.000977516 -0.999999 
0.0347999 0.0382872 0 0.000977516 0.000977516 -0.999999 
0.0291534 0.0238972 0 0.000977516 0.000977516 -0.999999 
0.0270078 0.0380229 0 0.000977516 0.000977516 -0.999999 
0.0309075 0.0329332 0 0.000977516 0.000977516 -0.999999 
0.0234229 0.0361298 0 0.000977516 0.000977516 -0.999999 
0.0172639 0.0323336 0 0.000977516 0.000977516 -0.999999 
0.0288812 0.0321611 0 0.000977516 0.000977516 -0.999999 
0.0123969 0.0288432 0 0.000977516 0.000977516 -0.999999 
0.00719402 0.0359544 0 0.000977516 0.000977516 -0.999999 
0.0398402 0.0292808 0 0.000977516 0.000977516 -0.999999 
0.0357586 0.0354323 0 0.000977516 0.000977516 -0.999999 
0.0244603 0.038664 0 0.000977516 0.000977516 -0.999999 
0.0134713 0.0389286 0 0.000977516 0.000977516 -0.999999 
0.037759 0.0345462 0 0.000977516 0.000977516 -0.999999 
0.0225136 0.028456 0 0.000977516 0.000977516 -0.999999 
0.0199479 0.0319315 0 0.000977516 0.000977516 -0.999999 
0.0358484 0.0122004 0 0.000977516 0.000977516 -0.999999 
0.0227396 0.0348094 0 0.000977516 0.000977516 -0.999999 
0.00871262 0.0373315 0 0.000977516 0.000977516 -0.999999 
0.0133769 0.027463 0 0.000977516 0.000977516 -0.999999 
0.0344835 0.034 0 0.000977516 0.000977516 -0.999999 
0.0320698 0.0353617 0 0.000977516 0.000977516 -0.999999 
0.0154682 0.0312777 0 0.000977516 0.000977516 -0.999999 
0.0126014 0.0353703 0 0.000977516 0.000977516 -0.999999 
0.0123178 0.0277283 0 0.000977516 0.000977516 -0.999999 
0.0281385 0.0157332 0 0.000977516 0.000977516 -0.999999 
0.0138908 0.027819 0 0.000977516 0.000977516 -0.999999 
0.0375462 0.0101514 0 0.000977516 0.000977516 -0.999999 
0.0343601 0.0128715 0 0.000977516 0.000977516 -0.999999 
0.0224111 0.0264458 0 0.000977516 0.000977516 -0.999999 
0.0388027 0.0167889 0 0.000977516 0.000977516 -0.999999 
0.0204796 0.0379193 0 0.000977516 0.000977516 -0.999999 
0.0347824 0.0161891 0 0.000977516 0.000977516 -0.999999 
0.0360272 0.00946997 0 0.000977516 0.000977516 -0.999999 
0.0372171 0.0288476 0 0.000977516 0.000977516 -0.999999 
0.0257693 0.0197541 0 0.000977516 0.000977516 -0.999999 
0.0218852 0.0367973 0 0.000977516 0.000977516 -0.999999 
0.0351715 0.005381 0 0.000977516 0.000977516 -0.999999 
0.0352723 0.0132211 0 0.000977516 0.000977516 -0.999999 
0.0328988 0.0180529 0 0.000977516 0.000977516 -0.999999 
0.0359209 0.0139014 0 0.000977516 0.000977516 -0.999999 
0.0280528 0.0378576 0 0.000977516 0.000977516 -0.999999 
0.0195075 0.0280104 0 0.000977516 0.000977516 -0.999999 
0.0353113 0.00819409 0 0.000977516 0.000977516 -0.999999 
0.0333883 0.0375823 0 0.000977516 0.000977516 -0.999999 
0.0313141 0.0255343 0 0.000977516 0.000977516 -0.999999 
0.0397212 0.0252619 0 0.000977516 0.000977516 -0.999999 
0.0284725 0.024575 0 0.000977516 0.000977516 -0.999999 
0.0395243 0.014676 0 0.000977516 0.000977516 -0.999999 
0.0352961 0.0234431 0 0.000977516 0.000977516 -0.999999 
0.0381725 0.0187867 0 0.000977516 0.000977516 -0.999999 
0.0251631 0.0360675 0 0.000977516 0.000977516 -0.999999 
0.0161867 0.030987 0 0.000977516 0.000977516 -0.999999 
0.0370985 0.00939482 0 0.000977516 0.000977516 -0.999999 
0.0232093 0.0377309 0 0.000977516 0.000977516 -0.999999 
0.0321911 0.0231545 0 0.000977516 0.000977516 -0.999999 
0.0349999 0.0143946 0 0.000977516 0.000977516 -0.999999 
0.0101158 0.0371272 0 0.000977516 0.000977516 -0.999999 
0.00874655 0.0362589 0 0.000977516 0.000977516 -0.999999 
0.0135814 0.0307639 0 0.000977516 0.000977516 -0.999999 
0.0207696 0.0374836 0 0.000977516 0.000977516 -0.999999 
0.0351882 0.0201498 0 0.000977516 0.000977516 -0.999999 
0.00902882 0.0389059 0 0.000977516 0.000977516 -0.999999 
0.0155517 0.0272706 0 0.000977516 0.000977516 -0.999999 
0.0188423 0.0218386 0 0.000977516 0.000977516 -0.999999 
0.0224602 0.0248046 0 0.000977516 0.000977516 -0.999999 
0.0349577 0.0211682 0 0.000977516 0.000977516 -0.999999 
0.0369479 0.0166894 0 0.000977516 0.000977516 -0.999999 
0.0176626 0.0327716 0 0.000977516 0.000977516 -0.999999 
0.00259725 0.0377749 0 0.000977516 0.000977516 -0.999999 
0.028577 0.0193822 0 0.000977516 0.000977516 -0.999999 
0.0188945 0.0230302 0 0.000977516 0.000977516 -0.999999 
0.0288506 0.0213494 0 0.000977516 0.000977516 -0.999999 
0.016635 0.0395974 0 0.000977516 0.000977516 -0.999999 
0.0224594 0.0282499 0 0.000977516 0.000977516 -0.999999 
0.00769086 0.0363895 0 0.000977516 0.000977516 -0.999999 
0.0359132 0.0255073 0 0.000977516 0.000977516 -0.999999 
0.015872 0.0244578 0 0.000977516 0.000977516 -0.999999 
0.0374122 0.0156217 0 0.000977516 0.000977516 -0.999999 
0.0114752 0.0395924 0 0.000977516 0.000977516 -0.999999 
0.00678038 0.0387254 0 0.000977516 0.000977516 -0.999999 
0.0204472 0.0228972 0 0.000977516 0.000977516 -0.999999 
0.0362381 0.0373187 0 0.000977516 0.000977516 -0.999999 
0.0353069 0.0122437 0 0.000977516 0.000977516 -0.999999 
0.0298111 0.0204599 0 0.000977516 0.000977516 -0.999999 
0.037567 0.0317738 0 0.000977516 0.000977516 -0.999999 
0.0323039 0.0230007 0 0.000977516 0.000977516 -0.999999 
0.0259954 0.0377839 0 0.000977516 0.000977516 -0.999999 
0.0301979 0.0395208 0 0.000977516 0.000977516 -0.999999 
0.0316233 0.0339859 0 0.000977516 0.000977516 -0.999999 
0.0358614 0.0243529 0 0.000977516 0.000977516 -0.999999 
0.017481 0.0279381 0 0.000977516 0.000977516 -0.999999 
0.0333648 0.0110942 0 0.000977516 0.000977516 -0.999999 
0.0307593 0.0302318 0 0.000977516 0.000977516 -0.999999 
0.034494 0.0366911 0 0.000977516 0.000977516 -0.999999 
0.0238708 0.0168765 0 0.000977516 0.000977516 -0.999999 
0.0371686 0.0207266 0 0.000977516 0.000977516 -0.999999 
0.0385374 0.0224607 0 0.000977516 0.000977516 -0.999999 
0.0108521 0.0363346 0 0.000977516 0.000977516 -0.999999 
0.0399395 0.0197629 0 0.000977516 0.000977516 -0.999999 
0.0067948 0.0381803 0 0.000977516 0.000977516 -0.999999 
0.0332444 0.0122653 0 0.000977516 0.000977516 -0.999999 
0.0240374 0.0348196 0 0.000977516 0.000977516 -0.999999 
0.0381388 0.0122196 0 0.000977516 0.000977516 -0.999999 
0.0276994 0.0189701 0 0.000977516 0.000977516 -0.999999 
0.0214482 0.0193474 0 0.000977516 0.000977516 -0.999999 
0.0334737 0.0376721 0 0.000977516 0.000977516 -0.999999 
0.0167059 0.0300415 0 0.000977516 0.000977516 -0.999999 
0.0338808 0.0221997 0 0.000977516 0.000977516 -0.999999 
0.0261338 0.0263471 0 0.000977516 0.000977516 -0.999999 
0.0117446 0.0393811 0 0.000977516 0.000977516 -0.999999 
0.0337353 0.0150957 0 0.000977516 0.000977516 -0.999999 
0.0341178 0.0150454 0 0.000977516 0.000977516 -0.999999 
0.0154945 0.0390064 0 0.000977516 0.000977516 -0.999999 
0.0297128 0.0229746 0 0.000977516 0.000977516 -0.999999 
0.033124 0.0342095 0 0.000977516 0.000977516 -0.999999 
0.0170412 0.0358719 0 0.000977516 0.000977516 -0.999999 
0.0392253 0.021035 0 0.000977516 0.000977516 -0.999999 
0.0266248 0.026277 0 0.000977516 0.000977516 -0.999999 
0.0337363 0.0172945 0 0.000977516 0.000977516 -0.999999 
0.0288955 0.0338481 0 0.000977516 0.000977516 -0.999999 
0.0215794 0.0215311 0 0.000977516 0.000977516 -0.999999 
0.0161257 0.0286248 0 0.000977516 0.000977516 -0.999999 
0.0216554 0.023996 0 0.000977516 0.000977516 -0.999999 
0.0249263 0.0187154 0 0.000977516 0.000977516 -0.999999 
0.0380444 0.0329036 0 0.000977516 0.000977516 -0.999999 
0.00815098 0.0380109 0 0.000977516 0.000977516 -0.999999 
0.0354504 0.0320135 0 0.000977516 0.000977516 -0.999999 
0.03984 0.00970171 0 0.000977516 0.000977516 -0.999999 
0.00186716 0.039858 0 0.000977516 0.000977516 -0.999999 
0.0369026 0.0199681 0 0.000977516 0.000977516 -0.999999 
0.0286586 0.0194045 0 0.000977516 0.000977516 -0.999999 
0.0126737 0.0386034 0 0.000977516 0.000977516 -0.999999 
0.0204402 0.0222382 0 0.000977516 0.000977516 -0.999999 
0.0195547 0.0289958 0 0.000977516 0.000977516 -0.999999 
0.0364462 0.0399624 0 0.000977516 0.000977516 -0.999999 
0.0395728 0.0091728 0 0.000977516 0.000977516 -0.999999 
0.0240486 0.0344512 0 0.000977516 0.000977516 -0.999999 
0.0385324 0.0348047 0 0.000977516 0.000977516 -0.999999 
0.0270134 0.0312911 0 0.000977516 0.000977516 -0.999999 
0.0379356 0.00944873 0 0.000977516 0.000977516 -0.999999 
0.0248016 0.0175337 0 0.000977516 0.000977516 -0.999999 
0.0331555 0.0126846 0 0.000977516 0.000977516 -0.999999 
0.0365745 0.0366764 0 0.000977516 0.000977516 -0.999999 
0.0346499 0.00827033 0 0.000977516 0.000977516 -0.999999 
0.0247187 0.0251437 0 0.000977516 0.000977516 -0.999999 
0.0391269 0.00699935 0 0.000977516 0.000977516 -0.999999 
0.0238392 0.0207303 0 0.000977516 0.000977516 -0.999999 
0.032683 0.0224294 0 0.000977516 0.000977516 -0.999999 
0.0245329 0.0249465 0 0.000977516 0.000977516 -0.999999 
0.0152073 0.0271134 0 0.000977516 0.000977516 -0.999999 
0.0381397 0.0216301 0 0.000977516 0.000977516 -0.999999 
0.0311436 0.0181948 0 0.000977516 0.000977516 -0.999999 
0.0146675 0.0330317 0 0.000977516 0.000977516 -0.999999 
0.0343597 0.0319008 0 0.000977516 0.000977516 -0.999999 
0.020108 0.0300102 0 0.000977516 0.000977516 -0.999999 
0.0276596 0.0340202 0 0.000977516 0.000977516 -0.999999 
0.0284616 0.0150702 0 0.000977516 0.000977516 -0.999999 
0.0397559 0.0211964 0 0.000977516 0.000977516 -0.999999 
0.0366818 0.0349357 0 0.000977516 0.000977516 -0.999999 
0.0272757 0.0303117 0 0.000977516 0.000977516 -0.999999 
0.0214977 0.0309201 0 0.000977516 0.000977516 -0.999999 
0.036988 0.0383451 0 0.000977516 0.000977516 -0.999999 
0.0140339 0.0271708 0 0.000977516 0.000977516 -0.999999 
0.0109638 0.037238 0 0.000977516 0.000977516 -0.999999 
0.0164035 0.03516 0 0.000977516 0.000977516 -0.999999 
0.0261258 0.0286639 0 0.000977516 0.000977516 -0.999999 
0.017531 0.0298112 0 0.000977516 0.000977516 -0.999999 
0.0224969 0.0208721 0 0.000977516 0.000977516 -0.999999 
0.0295134 0.0389804 0 0.000977516 0.000977516 -0.999999 
0.0343486 0.00942539 0 0.000977516 0.000977516 -0.999999 
0.0251984 0.0340224 0 0.000977516 0.000977516 -0.999999 
0.0252625 0.0330345 0 0.000977516 0.000977516 -0.999999 
0.0212108 0.0353029 0 0.000977516 0.000977516 -0.999999 
0.0218234 0.023896 0 0.000977516 0.000977516 -0.999999 
0.0392478 0.0168946 0 0.000977516 0.000977516 -0.999999 
0.0329297 0.0100457 0 0.000977516 0.000977516 -0.999999 
0.0310179 0.026132 0 0.000977516 0.000977516 -0.999999 
0.0184147 0.0295069 0 0.000977516 0.000977516 -0.999999 
0.017549 0.0267566 0 0.000977516 0.000977516 -0.999999 
0.0243078 0.036998 0 0.000977516 0.000977516 -0.999999 
0.0153636 0.0318536 0 0.000977516 0.000977516 -0.999999 
0.0354198 0.0373862 0 0.000977516 0.000977516 -0.999999 
0.00779509 0.039487 0 0.000977516 0.000977516 -0.999999 
0.0206105 0.0343806 0 0.000977516 0.000977516 -0.999999 
0.0271451 0.0369069 0 0.000977516 0.000977516 -0.999999 
0.0104531 0.0391686 0 0.000977516 0.000977516 -0.999999 
0.0340491 0.0355882 0 0.000977516 0.000977516 -0.999999 
0.0142672 0.0343539 0 0.000977516 0.000977516 -0.999999 
0.0249588 0.0257858 0 0.000977516 0.000977516 -0.999999 
0.0240517 0.0208287 0 0.000977516 0.000977516 -0.999999 
0.0253527 0.0271197 0 0.000977516 0.000977516 -0.999999 
0.0345557 0.0227414 0 0.000977516 0.000977516 -0.999999 
0.0197244 0.0378525 0 0.000977516 0.000977516 -0.999999 
0.0389021 0.00680661 0 0.000977516 0.000977516 -0.999999 
0.0394654 0.00524109 0 0.000977516 0.000977516 -0.999999 
0.034555 0.0325008 0 0.000977516 0.000977516 -0.999999 
0.0327097 0.0311203 0 0.000977516 0.000977516 -0.999999 
0.0357039 0.0102782 0 0.000977516 0.000977516 -0.999999 
0.0321166 0.024993 0 0.000977516 0.000977516 -0.999999 
0.0213778 0.0248059 0 0.000977516 0.000977516 -0.999999 
0.00537792 0.0384291 0 0.000977516 0.000977516 -0.999999 
0.0126431 0.034382 0 0.000977516 0.000977516 -0.999999 
0.0205905 0.0297054 0 0.000977516 0.000977516 -0.999999 
0.0250814 0.0170502 0 0.000977516 0.000977516 -0.999999 
0.0104538 0.0383199 0 0.000977516 0.000977516 -0.999999 
0.0336414 0.021969 0 0.000977516 0.000977516 -0.999999 
0.0321892 0.0165931 0 0.000977516 0.000977516 -0.999999 
0.03388 0.0366505 0 0.000977516 0.000977516 -0.999999 
0.00879612 0.0379252 0 0.000977516 0.000977516 -0.999999 
0.0347428 0.0324282 0 0.000977516 0.000977516 -0.999999 
0.0355838 0.0151631 0 0.000977516 0.000977516 -0.999999 
0.0366545 0.0260005 0 0.000977516 0.000977516 -0.999999 
0.0296328 0.0348641 0 0.000977516 0.000977516 -0.999999 
0.02553 0.0398075 0 0.000977516 0.000977516 -0.999999 
0.0139198 0.0379011 0 0.000977516 0.000977516 -0.999999 
0.0198325 0.0389847 0 0.000977516 0.000977516 -0.999999 
0.0203074 0.0240757 0 0.000977516 0.000977516 -0.999999 
0.0370585 0.0267709 0 0.000977516 0.000977516 -0.999999 
0.0265752 0.0138845 0 0.000977516 0.000977516 -0.999999 
0.0309618 0.0304361 0 0.000977516 0.000977516 -0.999999 
0.0293694 0.0378727 0 0.000977516 0.000977516 -0.999999 
0.0397604 0.0238923 0 0.000977516 0.000977516 -0.999999 
0.0335831 0.0266666 0 0.000977516 0.000977516 -0.999999 
0.0320465 0.0392912 0 0.000977516 0.000977516 -0.999999 
0.0396563 0.0352761 0 0.000977516 0.000977516 -0.999999 
0.0385303 0.0292181 0 0.000977516 0.000977516 -0.999999 
0.00728322 0.0385213 0 0.000977516 0.000977516 -0.999999 
0.0187505 0.037712 0 0.000977516 0.000977516 -0.999999 
0.0361563 0.00664965 0 0.000977516 0.000977516 -0.999999 
0.0390762 0.0336181 0 0.000977516 0.000977516 -0.999999 
0.0216499 0.0247038 0 0.000977516 0.000977516 -0.999999 
0.0329963 0.0159511 0 0.000977516 0.000977516 -0.999999 
0.0279336 0.0201536 0 0.000977516 0.000977516 -0.999999 
0.0187792 0.0277593 0 0.000977516 0.000977516 -0.999999 
0.0321311 0.0111622 0 0.000977516 0.000977516 -0.999999 
0.0223497 0.0228792 0 0.000977516 0.000977516 -0.999999 
0.0119056 0.0298194 0 0.000977516 0.000977516 -0.999999 
0.0318244 0.0222244 0 0.000977516 0.000977516 -0.999999 
0.0193699 0.0241942 0 0.000977516 0.000977516 -0.999999 
0.0398904 0.013644 0 0.000977516 0.000977516 -0.999999 
0.01841 0.0379377 0 0.000977516 0.000977516 -0.999999 
0.0100713 0.0379439 0 0.000977516 0.000977516 -0.999999 
0.03893 0.0102858 0 0.000977516 0.000977516 -0.999999 
0.0277284 0.0128329 0 0.000977516 0.000977516 -0.999999 
0.0377695 0.0246397 0 0.000977516 0.000977516 -0.999999 
0.0293754 0.0370709 0 0.000977516 0.000977516 -0.999999 
0.0200816 0.0346886 0 0.000977516 0.000977516 -0.999999 
0.0362632 0.0112843 0 0.000977516 0.000977516 -0.999999 
0.0216222 0.0347608 0 0.000977516 0.000977516 -0.999999 
0.0393399 0.00362794 0 0.000977516 0.000977516 -0.999999 
0.00950872 0.034527 0 0.000977516 0.000977516 -0.999999 
0.0328986 0.0333616 0 0.000977516 0.000977516 -0.999999 
0.022997 0.0314252 0 0.000977516 0.000977516 -0.999999 
0.0310113 0.0273945 0 0.000977516 0.000977516 -0.999999 
0.0388668 0.0230749 0 0.000977516 0.000977516 -0.999999 
0.0177228 0.0265524 0 0.000977516 0.000977516 -0.999999 
0.00965678 0.0306038 0 0.000977516 0.000977516 -0.999999 
0.0230698 0.0350029 0 0.000977516 0.000977516 -0.999999 
0.0391654 0.00719659 0 0.000977516 0.000977516 -0.999999 
0.0395713 0.0184969 0 0.000977516 0.000977516 -0.999999 
0.0336382 0.0201218 0 0.000977516 0.000977516 -0.999999 
0.0108662 0.0389801 0 0.000977516 0.000977516 -0.999999 
0.0278818 0.0295706 0 0.000977516 0.000977516 -0.999999 
0.0187289 0.0270906 0 0.000977516 0.000977516 -0.999999 
0.0228733 0.0367868 0 0.000977516 0.000977516 -0.999999 
0.0374632 0.0217445 0 0.000977516 0.000977516 -0.999999 
0.0392102 0.00173111 0 0.000977516 0.000977516 -0.999999 
0.0248883 0.0160839 0 0.000977516 0.000977516 -0.999999 
0.0270035 0.0390319 0 0.000977516 0.000977516 -0.999999 
0.0373329 0.0122596 0 0.000977516 0.000977516 -0.999999 
0.0240889 0.0333894 0 0.000977516 0.000977516 -0.999999 
0.0366232 0.00890098 0 0.000977516 0.000977516 -0.999999 
0.0330895 0.0151973 0 0.000977516 0.000977516 -0.999999 
0.0316362 0.0113265 0 0.000977516 0.000977516 -0.999999 
0.0284314 0.0319903 0 0.000977516 0.000977516 -0.999999 
0.0213488 0.0216549 0 0.000977516 0.000977516 -0.999999 
0.0303095 0.0172846 0 0.000977516 0.000977516 -0.999999 
0.0277339 0.0132595 0 0.000977516 0.000977516 -0.999999 
0.0339282 0.00640001 0 0.000977516 0.000977516 -0.999999 
0.033523 0.0238507 0 0.000977516 0.000977516 -0.999999 
0.0121645 0.0291563 0 0.000977516 0.000977516 -0.999999 
0.0300037 0.0327727 0 0.000977516 0.000977516 -0.999999 
0.0310921 0.0132142 0 0.000977516 0.000977516 -0.999999 
0.0218409 0.0386053 0 0.000977516 0.000977516 -0.999999 
0.0343744 0.0330779 0 0.000977516 0.000977516 -0.999999 
0.0244775 0.0166079 0 0.000977516 0.000977516 -0.999999 
0.0383484 0.0357089 0 0.000977516 0.000977516 -0.999999 
0.0256183 0.0311247 0 0.000977516 0.000977516 -0.999999 
0.0387105 0.00974515 0 0.000977516 0.000977516 -0.999999 
0.00245246 0.0390273 0 0.000977516 0.000977516 -0.999999 
0.0386915 0.0388274 0 0.000977516 0.000977516 -0.999999 
0.0205154 0.0312896 0 0.000977516 0.000977516 -0.999999 
0.0352906 0.0118155 0 0.000977516 0.000977516 -0.999999 
0.0130104 0.0292299 0 0.000977516 0.000977516 -0.999999 
0.0354563 0.00706102 0 0.000977516 0.000977516 -0.999999 
0.0293464 0.0312876 0 0.000977516 0.000977516 -0.999999 
0.0303038 0.0131869 0 0.000977516 0.000977516 -0.999999 
0.0348789 0.0268872 0 0.000977516 0.000977516 -0.999999 
0.0156781 0.035275 0 0.000977516 0.000977516 -0.999999 
0.0138208 0.0316261 0 0.000977516 0.000977516 -0.999999 
0.0167324 0.0297957 0 0.000977516 0.000977516 -0.999999 
0.0198863 0.0298806 0 0.000977516 0.000977516 -0.999999 
0.035024 0.0105962 0 0.000977516 0.000977516 -0.999999 
0.029005 0.0224859 0 0.000977516 0.000977516 -0.999999 
0.0357014 0.0333613 0 0.000977516 0.000977516 -0.999999 
0.0246834 0.0354328 0 0.000977516 0.000977516 -0.999999 
0.0318775 0.0342126 0 0.000977516 0.000977516 -0.999999 
0.0177555 0.0285588 0 0.000977516 0.000977516 -0.999999 
0.0335223 0.0194582 0 0.000977516 0.000977516 -0.999999 
0.0177407 0.031463 0 0.000977516 0.000977516 -0.999999 
0.0300574 0.0304668 0 0.000977516 0.000977516 -0.999999 
0.0195089 0.0213234 0 0.000977516 0.000977516 -0.999999 
0.0259404 0.0183357 0 0.000977516 0.000977516 -0.999999 
0.0383752 0.0350258 0 0.000977516 0.000977516 -0.999999 
0.0353104 0.00795899 0 0.000977516 0.000977516 -0.999999 
0.0233232 0.0255921 0 0.000977516 0.000977516 -0.999999 
0.0178604 0.0372251 0 0.000977516 0.000977516 -0.999999 
0.018439 0.0243977 0 0.000977516 0.000977516 -0.999999 
0.0313929 0.0377298 0 0.000977516 0.000977516 -0.999999 
0.0229145 0.0251681 0 0.000977516 0.000977516 -0.999999 
0.0301761 0.0301561 0 0.000977516 0.000977516 -0.999999 
0.0314148 0.00914734 0 0.000977516 0.000977516 -0.999999 
0.0266894 0.0212712 0 0.000977516 0.000977516 -0.999999 
0.0384015 0.0343256 0 0.000977516 0.000977516 -0.999999 
0.0311031 0.0183653 0 0.000977516 0.000977516 -0.999999 
0.0203924 0.0387774 0 0.000977516 0.000977516 -0.999999 
0.025501 0.0159355 0 0.000977516 0.000977516 -0.999999 
0.0328105 0.0292728 0 0.000977516 0.000977516 -0.999999 
0.0274087 0.0263249 0 0.000977516 0.000977516 -0.999999 
0.0184195 0.0233783 0 0.000977516 0.000977516 -0.999999 
0.0334149 0.018451 0 0.000977516 0.000977516 -0.999999 
0.0185168 0.0317055 0 0.000977516 0.000977516 -0.999999 
0.0393941 0.018144 0 0.000977516 0.000977516 -0.999999 
0.0048271 0.0363982 0 0.000977516 0.000977516 -0.999999 
0.0322675 0.0396466 0 0.000977516 0.000977516 -0.999999 
0.0234124 0.0273018 0 0.000977516 0.000977516 -0.999999 
0.024992 0.0353494 0 0.000977516 0.000977516 -0.999999 
0.0135952 0.0338588 0 0.000977516 0.000977516 -0.999999 
0.0165179 0.0307668 0 0.000977516 0.000977516 -0.999999 
0.0317812 0.0169888 0 0.000977516 0.000977516 -0.999999 
0.0162825 0.0316967 0 0.000977516 0.000977516 -0.999999 
0.0354355 0.00664625 0 0.000977516 0.000977516 -0.999999 
0.0179735 0.0309693 0 0.000977516 0.000977516 -0.999999 
0.0127771 0.0327328 0 0.000977516 0.000977516 -0.999999 
0.018401 0.0259744 0 0.000977516 0.000977516 -0.999999 
0.0301754 0.035242 0 0.000977516 0.000977516 -0.999999 
0.034635 0.0282066 0 0.000977516 0.000977516 -0.999999 
0.0265761 0.0134746 0 0.000977516 0.000977516 -0.999999 
0.0351597 0.0165091 0 0.000977516 0.000977516 -0.999999 
0.00479364 0.0361115 0 0.000977516 0.000977516 -0.999999 
0.0133745 0.0307609 0 0.000977516 0.000977516 -0.999999 
0.0247275 0.0200945 0 0.000977516 0.000977516 -0.999999 
0.0138415 0.0371978 0 0.000977516 0.000977516 -0.999999 
0.0290818 0.0384949 0 0.000977516 0.000977516 -0.999999 
0.0351757 0.0056879 0 0.000977516 0.000977516 -0.999999 
0.016619 0.036344 0 0.000977516 0.000977516 -0.999999 
0.0180848 0.0306783 0 0.000977516 0.000977516 -0.999999 
0.0319327 0.0397418 0 0.000977516 0.000977516 -0.999999 
0.0204044 0.0341003 0 0.000977516 0.000977516 -0.999999 
0.0297069 0.0126383 0 0.000977516 0.000977516 -0.999999 
0.0235008 0.0289332 0 0.000977516 0.000977516 -0.999999 
0.0345966 0.00794692 0 0.000977516 0.000977516 -0.999999 
0.0246645 0.0384388 0 0.000977516 0.000977516 -0.999999 
0.0184203 0.0323283 0 0.000977516 0.000977516 -0.999999 
0.0201698 0.0341204 0 0.000977516 0.000977516 -0.999999 
0.0116391 0.0390487 0 0.000977516 0.000977516 -0.999999 
0.0397625 0.0105521 0 0.000977516 0.000977516 -0.999999 
0.0185922 0.0309194 0 0.000977516 0.000977516 -0.999999 
0.0323816 0.0211593 0 0.000977516 0.000977516 -0.999999 
0.0367612 0.0141467 0 0.000977516 0.000977516 -0.999999 
0.0287572 0.0212978 0 0.000977516 0.000977516 -0.999999 
0.0334152 0.0167698 0 0.000977516 0.000977516 -0.999999 
0.0307049 0.0155174 0 0.000977516 0.000977516 -0.999999 
0.015272 0.0270548 0 0.000977516 0.000977516 -0.999999 
0.0237548 0.028107 0 0.000977516 0.000977516 -0.999999 
0.0338369 0.0275608 0 0.000977516 0.000977516 -0.999999 
0.00953824 0.031378 0 0.000977516 0.000977516 -0.999999 
0.0364669 0.0363499 0 0.000977516 0.000977516 -0.999999 
0.0332859 0.0291939 0 0.000977516 0.000977516 -0.999999 
0.0174268 0.024182 0 0.000977516 0.000977516 -0.999999 
0.032277 0.0139474 0 0.000977516 0.000977516 -0.999999 
0.0312168 0.0308578 0 0.000977516 0.000977516 -0.999999 
0.0264153 0.0254085 0 0.000977516 0.000977516 -0.999999 
0.025089 0.0395033 0 0.000977516 0.000977516 -0.999999 
0.0348056 0.0290211 0 0.000977516 0.000977516 -0.999999 
0.00801577 0.0327048 0 0.000977516 0.000977516 -0.999999 
0.0286479 0.0129297 0 0.000977516 0.000977516 -0.999999 
0.024404 0.0291669 0 0.000977516 0.000977516 -0.999999 
0.00552212 0.0357566 0 0.000977516 0.000977516 -0.999999 
0.033351 0.028032 0 0.000977516 0.000977516 -0.999999 
0.0226854 0.0385041 0 0.000977516 0.000977516 -0.999999 
0.0259138 0.0282338 0 0.000977516 0.000977516 -0.999999 
0.0343629 0.0227927 0 0.000977516 0.000977516 -0.999999 
0.014217 0.0310041 0 0.000977516 0.000977516 -0.999999 
0.0382461 0.00677793 0 0.000977516 0.000977516 -0.999999 
0.023063 0.0191531 0 0.000977516 0.000977516 -0.999999 
0.0305558 0.0265716 0 0.000977516 0.000977516 -0.999999 
0.0134471 0.0360136 0 0.000977516 0.000977516 -0.999999 
0.0188541 0.0291977 0 0.000977516 0.000977516 -0.999999 
0.0242227 0.0340937 0 0.000977516 0.000977516 -0.999999 
0.0139874 0.0377412 0 0.000977516 0.000977516 -0.999999 
0.0318036 0.0350791 0 0.000977516 0.000977516 -0.999999 
0.0374303 0.0139103 0 0.000977516 0.000977516 -0.999999 
0.0399655 0.0326235 0 0.000977516 0.000977516 -0.999999 
0.0329287 0.0399315 0 0.000977516 0.000977516 -0.999999 
0.0301467 0.0396598 0 0.000977516 0.000977516 -0.999999 
0.0233413 0.0224852 0 0.000977516 0.000977516 -0.999999 
0.0372701 0.0196462 0 0.000977516 0.000977516 -0.999999 
0.0176393 0.028777 0 0.000977516 0.000977516 -0.999999 
0.0394136 0.0194104 0 0.000977516 0.000977516 -0.999999 
0.0295601 0.0301272 0 0.000977516 0.000977516 -0.999999 
0.02056 0.02995 0 0.000977516 0.000977516 -0.999999 
0.0153434 0.0254036 0 0.000977516 0.000977516 -0.999999 
0.0351713 0.0302111 0 0.000977516 0.000977516 -0.999999 
0.0168177 0.0303389 0 0.000977516 0.000977516 -0.999999 
0.0209808 0.0203225 0 0.000977516 0.000977516 -0.999999 
0.0106653 0.0370039 0 0.000977516 0.000977516 -0.999999 
0.0243573 0.0308658 0 0.000977516 0.000977516 -0.999999 
0.0349822 0.0387054 0 0.000977516 0.000977516 -0.999999 
0.020255 0.0388802 0 0.000977516 0.000977516 -0.999999 
0.0149954 0.031615 0 0.000977516 0.000977516 -0.999999 
0.0271191 0.0313151 0 0.000977516 0.000977516 -0.999999 
0.0232806 0.0175406 0 0.000977516 0.000977516 -0.999999 
0.0186229 0.0299908 0 0.000977516 0.000977516 -0.999999 
0.0050224 0.0377186 0 0.000977516 0.000977516 -0.999999 
0.0262577 0.0212496 0 0.000977516 0.000977516 -0.999999 
0.0355071 0.0130375 0 0.000977516 0.000977516 -0.999999 
0.0228581 0.023886 0 0.000977516 0.000977516 -0.999999 
0.0372984 0.0215606 0 0.000977516 0.000977516 -0.999999 
0.0333308 0.0230443 0 0.000977516 0.000977516 -0.999999 
0.0299827 0.0286795 0 0.000977516 0.000977516 -0.999999 
0.0371462 0.0201331 0 0.000977516 0.000977516 -0.999999 
0.0373338 0.00502257 0 0.000977516 0.000977516 -0.999999 
0.0329533 0.0280318 0 0.000977516 0.000977516 -0.999999 
0.0103481 0.0350028 0 0.000977516 0.000977516 -0.999999 
0.0325764 0.0195626 0 0.000977516 0.000977516 -0.999999 
0.0257851 0.0233793 0 0.000977516 0.000977516 -0.999999 
0.0379611 0.036907 0 0.000977516 0.000977516 -0.999999 
0.0373993 0.00423615 0 0.000977516 0.000977516 -0.999999 
0.00184321 0.0387573 0 0.000977516 0.000977516 -0.999999 
0.0227743 0.021435 0 0.000977516 0.000977516 -0.999999 
0.0273824 0.0187794 0 0.000977516 0.000977516 -0.999999 
0.0376108 0.0273576 0 0.000977516 0.000977516 -0.999999 
0.0201078 0.0262168 0 0.000977516 0.000977516 -0.999999 
0.0351414 0.0109358 0 0.000977516 0.000977516 -0.999999 
0.00589986 0.0378591 0 0.000977516 0.000977516 -0.999999 
0.0134799 0.0361196 0 0.000977516 0.000977516 -0.999999 
0.020645 0.0380868 0 0.000977516 0.000977516 -0.999999 
0.0277663 0.0184894 0 0.000977516 0.000977516 -0.999999 
0.0207107 0.0398478 0 0.000977516 0.000977516 -0.999999 
0.0367474 0.0285938 0 0.000977516 0.000977516 -0.999999 
0.0378224 0.0385305 0 0.000977516 0.000977516 -0.999999 
0.0281303 0.0259743 0 0.000977516 0.000977516 -0.999999 
0.0360412 0.0335209 0 0.000977516 0.000977516 -0.999999 
0.00421928 0.0391776 0 0.000977516 0.000977516 -0.999999 
0.0184985 0.0350867 0 0.000977516 0.000977516 -0.999999 
0.0291154 0.0182856 0 0.000977516 0.000977516 -0.999999 
0.0213559 0.0336841 0 0.000977516 0.000977516 -0.999999 
0.0287331 0.0183349 0 0.000977516 0.000977516 -0.999999 
0.0328458 0.0399236 0 0.000977516 0.000977516 -0.999999 
0.0397568 0.0263689 0 0.000977516 0.000977516 -0.999999 
0.0303512 0.0268245 0 0.000977516 0.000977516 -0.999999 
